15.1206144      3.1719006       3.2413626
13.9212966      1.014849        2.4972678
18.4843104      1.0327581       2.3674527
11.6908458      -2.5391124      5.2140168
11.8410108      0.0338283       5.5352088
11.973156       2.6147286       5.6730537
16.2458508      -2.5828902      5.1337188
16.137732       -0.0139293      5.4629406
16.1157078      2.5689609       5.607477
20.0960814      -0.9989298      2.783664
20.102088       3.0405672       2.7809874
11.6287776      4.97475 4.737582
16.2498552      4.97475 4.7349054
14.2496574      4.97475 -0.7748757
17.849613       4.97475 -0.8177013
22.5728028      11.0121066      3.4233714
23.8582152      11.1175713      5.6355813
26.0145846      11.1275208      7.0782687
28.0928682      11.1653289      5.5459152
27.7324722      11.0260359      2.9937771
25.157643       11.0499147      3.399282
22.5407676      6.8432661       3.5170524
23.856213       6.8611752       5.7172176
26.068644       6.8571954       7.0769304
28.210998       6.7378014       5.6516409
27.6924282      6.8094378       3.0861198
25.1316144      6.7775994       3.4501374
23.9322966      8.934651        4.1942322
28.4953104      8.9167419       4.3240473
21.7018458      12.4886124      1.4774832
21.8520108      9.9156717       1.1562912
21.984156       7.3347714       1.0184463
26.2568508      12.5323902      1.5577812
26.148732       9.9634293       1.2285594
26.1267078      7.3805391       1.084023
30.1070814      10.9484298      3.907836
30.113088       6.9089328       3.9105126
21.6397776      4.97475 1.953918
26.2608552      4.97475 1.9565946
24.2606574      4.97475 7.4663757
27.860613       4.97475 7.5092013
17.4711972      8.8868934       -3.4233714
16.1857848      8.7814287       -5.6355813
14.0294154      8.7714792       -7.0782687
11.9511318      8.7336711       -5.5459152
12.3115278      8.8729641       -2.9937771
14.886357       8.8490853       -3.399282
17.5032324      13.0557339      -3.5170524
16.187787       13.0378248      -5.7172176
13.975356       13.0418046      -7.0769304
11.833002       13.1611986      -5.6516409
12.3515718      13.0895622      -3.0861198
14.9123856      13.1214006      -3.4501374
16.1117034      10.964349       -4.1942322
11.5486896      10.9822581      -4.3240473
18.3421542      7.4103876       -1.4774832
18.1919892      9.9833283       -1.1562912
18.059844       12.5642286      -1.0184463
13.7871492      7.3666098       -1.5577812
13.895268       9.9355707       -1.2285594
13.9172922      12.5184609      -1.084023
9.9369186       8.9505702       -3.907836
9.930912        12.9900672      -3.9105126
18.4042224      14.92425        -1.953918
13.7831448      14.92425        -1.9565946
15.7833426      14.92425        -7.4663757
12.183387       14.92425        -7.5092013
22.5728028      -1.0626066      3.4233714
23.8582152      -1.1680713      5.6355813
26.0145846      -1.1780208      7.0782687
28.0928682      -1.2158289      5.5459152
27.7324722      -1.0765359      2.9937771
25.157643       -1.1004147      3.399282
22.5407676      3.1062339       3.5170524
23.856213       3.0883248       5.7172176
26.068644       3.0923046       7.0769304
28.210998       3.2116986       5.6516409
27.6924282      3.1400622       3.0861198
25.1316144      3.1719006       3.4501374
23.9322966      1.014849        4.1942322
28.4953104      1.0327581       4.3240473
21.7018458      -2.5391124      1.4774832
21.8520108      0.0338283       1.1562912
21.984156       2.6147286       1.0184463
26.2568508      -2.5828902      1.5577812
26.148732       -0.0139293      1.2285594
26.1267078      2.5689609       1.084023
30.1070814      -0.9989298      3.907836
30.113088       3.0405672       3.9105126
17.4711972      1.0626066       -3.4233714
16.1857848      1.1680713       -5.6355813
14.0294154      1.1780208       -7.0782687
11.9511318      1.2158289       -5.5459152
12.3115278      1.0765359       -2.9937771
14.886357       1.1004147       -3.399282
17.5032324      -3.1062339      -3.5170524
16.187787       -3.0883248      -5.7172176
13.975356       -3.0923046      -7.0769304
11.833002       -3.2116986      -5.6516409
12.3515718      -3.1400622      -3.0861198
14.9123856      -3.1719006      -3.4501374
16.1117034      -1.014849       -4.1942322
11.5486896      -1.0327581      -4.3240473
18.3421542      2.5391124       -1.4774832
18.1919892      -0.0338283      -1.1562912
18.059844       -2.6147286      -1.0184463
13.7871492      2.5828902       -1.5577812
13.895268       0.0139293       -1.2285594
13.9172922      -2.5689609      -1.084023
9.9369186       0.9989298       -3.907836
9.930912        -3.0405672      -3.9105126
27.4821972      8.8868934       -3.2681286
26.1967848      8.7814287       -1.0559187
24.0404154      8.7714792       0.3867687
21.9621318      8.7336711       -1.1455848
22.3225278      8.8729641       -3.6977229
24.897357       8.8490853       -3.292218
27.5142324      13.0557339      -3.1744476
26.198787       13.0378248      -0.9742824
23.986356       13.0418046      0.3854304
21.844002       13.1611986      -1.0398591
22.3625718      13.0895622      -3.6053802
24.9233856      13.1214006      -3.2413626
26.1227034      10.964349       -2.4972678
21.5596896      10.9822581      -2.3674527
28.3531542      7.4103876       -5.2140168
28.2029892      9.9833283       -5.5352088
28.070844       12.5642286      -5.6730537
23.7981492      7.3666098       -5.1337188
23.906268       9.9355707       -5.4629406
23.9282922      12.5184609      -5.607477
19.9479186      8.9505702       -2.783664
19.941912       12.9900672      -2.7809874
12.5618028      11.0121066      3.2681286
13.8472152      11.1175713      1.0559187
16.0035846      11.1275208      -0.3867687
18.0818682      11.1653289      1.1455848
17.7214722      11.0260359      3.6977229
15.146643       11.0499147      3.292218
12.5297676      6.8432661       3.1744476
13.845213       6.8611752       0.9742824
16.057644       6.8571954       -0.3854304
18.199998       6.7378014       1.0398591
17.6814282      6.8094378       3.6053802
15.1206144      6.7775994       3.2413626
13.9212966      8.934651        2.4972678
18.4843104      8.9167419       2.3674527
11.6908458      12.4886124      5.2140168
11.8410108      9.9156717       5.5352088
11.973156       7.3347714       5.6730537
16.2458508      12.5323902      5.1337188
16.137732       9.9634293       5.4629406
16.1157078      7.3805391       5.607477
20.0960814      10.9484298      2.783664
20.102088       6.9089328       2.7809874
7.4601972       -18.8363934     -3.2681286
6.1747848       -18.7309287     -1.0559187
4.0184154       -18.7209792     0.3867687
1.9401318       -18.6831711     -1.1455848
2.3005278       -18.8224641     -3.6977229
4.875357        -18.7985853     -3.292218
7.4922324       -23.0052339     -3.1744476
6.176787        -22.9873248     -0.9742824
3.964356        -22.9913046     0.3854304
1.822002        -23.1106986     -1.0398591
2.3405718       -23.0390622     -3.6053802
4.9013856       -23.0709006     -3.2413626
6.1007034       -20.913849      -2.4972678
1.5376896       -20.9317581     -2.3674527
8.3311542       -17.3598876     -5.2140168
8.1809892       -19.9328283     -5.5352088
8.048844        -22.5137286     -5.6730537
3.7761492       -17.3161098     -5.1337188
3.884268        -19.8850707     -5.4629406
3.9062922       -22.4679609     -5.607477
-0.0740814      -18.9000702     -2.783664
-0.080088       -22.9395672     -2.7809874
8.3932224       -24.87375       -4.737582
3.7721448       -24.87375       -4.7349054
5.7723426       -24.87375       0.7748757
2.172387        -24.87375       0.8177013
-7.4601972      -20.9616066     3.2681286
-6.1747848      -21.0670713     1.0559187
-4.0184154      -21.0770208     -0.3867687
-1.9401318      -21.1148289     1.1455848
-2.3005278      -20.9755359     3.6977229
-4.875357       -20.9994147     3.292218
-7.4922324      -16.7927661     3.1744476
-6.176787       -16.8106752     0.9742824
-3.964356       -16.8066954     -0.3854304
-1.822002       -16.6873014     1.0398591
-2.3405718      -16.7589378     3.6053802
-4.9013856      -16.7270994     3.2413626
-6.1007034      -18.884151      2.4972678
-1.5376896      -18.8662419     2.3674527
-8.3311542      -22.4381124     5.2140168
-8.1809892      -19.8651717     5.5352088
-8.048844       -17.2842714     5.6730537
-3.7761492      -22.4818902     5.1337188
-3.884268       -19.9129293     5.4629406
-3.9062922      -17.3300391     5.607477
0.0740814       -20.8979298     2.783664
0.080088        -16.8584328     2.7809874
-8.3932224      -14.92425       4.737582
-3.7721448      -14.92425       4.7349054
-5.7723426      -14.92425       -0.7748757
-2.172387       -14.92425       -0.8177013
2.5508028       -8.8868934      3.4233714
3.8362152       -8.7814287      5.6355813
5.9925846       -8.7714792      7.0782687
8.0708682       -8.7336711      5.5459152
7.7104722       -8.8729641      2.9937771
5.135643        -8.8490853      3.399282
2.5187676       -13.0557339     3.5170524
3.834213        -13.0378248     5.7172176
6.046644        -13.0418046     7.0769304
8.188998        -13.1611986     5.6516409
7.6704282       -13.0895622     3.0861198
5.1096144       -13.1214006     3.4501374
3.9102966       -10.964349      4.1942322
8.4733104       -10.9822581     4.3240473
1.6798458       -7.4103876      1.4774832
1.8300108       -9.9833283      1.1562912
1.962156        -12.5642286     1.0184463
6.2348508       -7.3666098      1.5577812
6.126732        -9.9355707      1.2285594
6.1047078       -12.5184609     1.084023
10.0850814      -8.9505702      3.907836
10.091088       -12.9900672     3.9105126
1.6177776       -14.92425       1.953918
6.2388552       -14.92425       1.9565946
4.2386574       -14.92425       7.4663757
7.838613        -14.92425       7.5092013
-2.5508028      -11.0121066     -3.4233714
-3.8362152      -11.1175713     -5.6355813
-5.9925846      -11.1275208     -7.0782687
-8.0708682      -11.1653289     -5.5459152
-7.7104722      -11.0260359     -2.9937771
-5.135643       -11.0499147     -3.399282
-2.5187676      -6.8432661      -3.5170524
-3.834213       -6.8611752      -5.7172176
-6.046644       -6.8571954      -7.0769304
-8.188998       -6.7378014      -5.6516409
-7.6704282      -6.8094378      -3.0861198
-5.1096144      -6.7775994      -3.4501374
-3.9102966      -8.934651       -4.1942322
-8.4733104      -8.9167419      -4.3240473
-1.6798458      -12.4886124     -1.4774832
-1.8300108      -9.9156717      -1.1562912
-1.962156       -7.3347714      -1.0184463
-6.2348508      -12.5323902     -1.5577812
-6.126732       -9.9634293      -1.2285594
-6.1047078      -7.3805391      -1.084023
-10.0850814     -10.9484298     -3.907836
-10.091088      -6.9089328      -3.9105126
-1.6177776      -4.97475        -1.953918
-6.2388552      -4.97475        -1.9565946
-4.2386574      -4.97475        -7.4663757
-7.838613       -4.97475        -7.5092013
2.5508028       -20.9616066     3.4233714
3.8362152       -21.0670713     5.6355813
5.9925846       -21.0770208     7.0782687
8.0708682       -21.1148289     5.5459152
7.7104722       -20.9755359     2.9937771
5.135643        -20.9994147     3.399282
2.5187676       -16.7927661     3.5170524
3.834213        -16.8106752     5.7172176
6.046644        -16.8066954     7.0769304
8.188998        -16.6873014     5.6516409
7.6704282       -16.7589378     3.0861198
5.1096144       -16.7270994     3.4501374
3.9102966       -18.884151      4.1942322
8.4733104       -18.8662419     4.3240473
1.6798458       -22.4381124     1.4774832
1.8300108       -19.8651717     1.1562912
1.962156        -17.2842714     1.0184463
6.2348508       -22.4818902     1.5577812
6.126732        -19.9129293     1.2285594
6.1047078       -17.3300391     1.084023
10.0850814      -20.8979298     3.907836
10.091088       -16.8584328     3.9105126
-2.5508028      -18.8363934     -3.4233714
-3.8362152      -18.7309287     -5.6355813
-5.9925846      -18.7209792     -7.0782687
-8.0708682      -18.6831711     -5.5459152
-7.7104722      -18.8224641     -2.9937771
-5.135643       -18.7985853     -3.399282
-2.5187676      -23.0052339     -3.5170524
-3.834213       -22.9873248     -5.7172176
-6.046644       -22.9913046     -7.0769304
-8.188998       -23.1106986     -5.6516409
-7.6704282      -23.0390622     -3.0861198
-5.1096144      -23.0709006     -3.4501374
-3.9102966      -20.913849      -4.1942322
-8.4733104      -20.9317581     -4.3240473
-1.6798458      -17.3598876     -1.4774832
-1.8300108      -19.9328283     -1.1562912
-1.962156       -22.5137286     -1.0184463
-6.2348508      -17.3161098     -1.5577812
-6.126732       -19.8850707     -1.2285594
-6.1047078      -22.4679609     -1.084023
-10.0850814     -18.9000702     -3.907836
-10.091088      -22.9395672     -3.9105126
7.4601972       -11.0121066     -3.2681286
6.1747848       -11.1175713     -1.0559187
4.0184154       -11.1275208     0.3867687
1.9401318       -11.1653289     -1.1455848
2.3005278       -11.0260359     -3.6977229
4.875357        -11.0499147     -3.292218
7.4922324       -6.8432661      -3.1744476
6.176787        -6.8611752      -0.9742824
3.964356        -6.8571954      0.3854304
1.822002        -6.7378014      -1.0398591
2.3405718       -6.8094378      -3.6053802
4.9013856       -6.7775994      -3.2413626
6.1007034       -8.934651       -2.4972678
1.5376896       -8.9167419      -2.3674527
8.3311542       -12.4886124     -5.2140168
8.1809892       -9.9156717      -5.5352088
8.048844        -7.3347714      -5.6730537
3.7761492       -12.5323902     -5.1337188
3.884268        -9.9634293      -5.4629406
3.9062922       -7.3805391      -5.607477
-0.0740814      -10.9484298     -2.783664
-0.080088       -6.9089328      -2.7809874
-7.4601972      -8.8868934      3.2681286
-6.1747848      -8.7814287      1.0559187
-4.0184154      -8.7714792      -0.3867687
-1.9401318      -8.7336711      1.1455848
-2.3005278      -8.8729641      3.6977229
-4.875357       -8.8490853      3.292218
-7.4922324      -13.0557339     3.1744476
-6.176787       -13.0378248     0.9742824
-3.964356       -13.0418046     -0.3854304
-1.822002       -13.1611986     1.0398591
-2.3405718      -13.0895622     3.6053802
-4.9013856      -13.1214006     3.2413626
-6.1007034      -10.964349      2.4972678
-1.5376896      -10.9822581     2.3674527
-8.3311542      -7.4103876      5.2140168
-8.1809892      -9.9833283      5.5352088
-8.048844       -12.5642286     5.6730537
-3.7761492      -7.3666098      5.1337188
-3.884268       -9.9355707      5.4629406
-3.9062922      -12.5184609     5.607477
0.0740814       -8.9505702      2.783664
0.080088        -12.9900672     2.7809874
7.4601972       1.0626066       -16.6511286
6.1747848       1.1680713       -14.4389187
4.0184154       1.1780208       -12.9962313
1.9401318       1.2158289       -14.5285848
2.3005278       1.0765359       -17.0807229
4.875357        1.1004147       -16.675218
7.4922324       -3.1062339      -16.5574476
6.176787        -3.0883248      -14.3572824
3.964356        -3.0923046      -12.9975696
1.822002        -3.2116986      -14.4228591
2.3405718       -3.1400622      -16.9883802
4.9013856       -3.1719006      -16.6243626
6.1007034       -1.014849       -15.8802678
1.5376896       -1.0327581      -15.7504527
8.3311542       2.5391124       -18.5970168
8.1809892       -0.0338283      -18.9182088
8.048844        -2.6147286      -19.0560537
3.7761492       2.5828902       -18.5167188
3.884268        0.0139293       -18.8459406
3.9062922       -2.5689609      -18.990477
-0.0740814      0.9989298       -16.166664
-0.080088       -3.0405672      -16.1639874
8.3932224       -4.97475        -18.120582
3.7721448       -4.97475        -18.1179054
5.7723426       -4.97475        -12.6081243
2.172387        -4.97475        -12.5652987
-7.4601972      -1.0626066      -10.1148714
-6.1747848      -1.1680713      -12.3270813
-4.0184154      -1.1780208      -13.7697687
-1.9401318      -1.2158289      -12.2374152
-2.3005278      -1.0765359      -9.6852771
-4.875357       -1.1004147      -10.090782
-7.4922324      3.1062339       -10.2085524
-6.176787       3.0883248       -12.4087176
-3.964356       3.0923046       -13.7684304
-1.822002       3.2116986       -12.3431409
-2.3405718      3.1400622       -9.7776198
-4.9013856      3.1719006       -10.1416374
-6.1007034      1.014849        -10.8857322
-1.5376896      1.0327581       -11.0155473
-8.3311542      -2.5391124      -8.1689832
-8.1809892      0.0338283       -7.8477912
-8.048844       2.6147286       -7.7099463
-3.7761492      -2.5828902      -8.2492812
-3.884268       -0.0139293      -7.9200594
-3.9062922      2.5689609       -7.775523
0.0740814       -0.9989298      -10.599336
0.080088        3.0405672       -10.6020126
-8.3932224      4.97475 -8.645418
-3.7721448      4.97475 -8.6480946
-5.7723426      4.97475 -14.1578757
-2.172387       4.97475 -14.2007013
2.5508028       11.0121066      -9.9596286
3.8362152       11.1175713      -7.7474187
5.9925846       11.1275208      -6.3047313
8.0708682       11.1653289      -7.8370848
7.7104722       11.0260359      -10.3892229
5.135643        11.0499147      -9.983718
2.5187676       6.8432661       -9.8659476
3.834213        6.8611752       -7.6657824
6.046644        6.8571954       -6.3060696
8.188998        6.7378014       -7.7313591
7.6704282       6.8094378       -10.2968802
5.1096144       6.7775994       -9.9328626
3.9102966       8.934651        -9.1887678
8.4733104       8.9167419       -9.0589527
1.6798458       12.4886124      -11.9055168
1.8300108       9.9156717       -12.2267088
1.962156        7.3347714       -12.3645537
6.2348508       12.5323902      -11.8252188
6.126732        9.9634293       -12.1544406
6.1047078       7.3805391       -12.298977
10.0850814      10.9484298      -9.475164
10.091088       6.9089328       -9.4724874
1.6177776       4.97475 -11.429082
6.2388552       4.97475 -11.4264054
4.2386574       4.97475 -5.9166243
7.838613        4.97475 -5.8737987
-2.5508028      8.8868934       -16.8063714
-3.8362152      8.7814287       -19.0185813
-5.9925846      8.7714792       -20.4612687
-8.0708682      8.7336711       -18.9289152
-7.7104722      8.8729641       -16.3767771
-5.135643       8.8490853       -16.782282
-2.5187676      13.0557339      -16.9000524
-3.834213       13.0378248      -19.1002176
-6.046644       13.0418046      -20.4599304
-8.188998       13.1611986      -19.0346409
-7.6704282      13.0895622      -16.4691198
-5.1096144      13.1214006      -16.8331374
-3.9102966      10.964349       -17.5772322
-8.4733104      10.9822581      -17.7070473
-1.6798458      7.4103876       -14.8604832
-1.8300108      9.9833283       -14.5392912
-1.962156       12.5642286      -14.4014463
-6.2348508      7.3666098       -14.9407812
-6.126732       9.9355707       -14.6115594
-6.1047078      12.5184609      -14.467023
-10.0850814     8.9505702       -17.290836
-10.091088      12.9900672      -17.2935126
-1.6177776      14.92425        -15.336918
-6.2388552      14.92425        -15.3395946
-4.2386574      14.92425        -20.8493757
-7.838613       14.92425        -20.8922013
2.5508028       -1.0626066      -9.9596286
3.8362152       -1.1680713      -7.7474187
5.9925846       -1.1780208      -6.3047313
8.0708682       -1.2158289      -7.8370848
7.7104722       -1.0765359      -10.3892229
5.135643        -1.1004147      -9.983718
2.5187676       3.1062339       -9.8659476
3.834213        3.0883248       -7.6657824
6.046644        3.0923046       -6.3060696
8.188998        3.2116986       -7.7313591
7.6704282       3.1400622       -10.2968802
5.1096144       3.1719006       -9.9328626
3.9102966       1.014849        -9.1887678
8.4733104       1.0327581       -9.0589527
1.6798458       -2.5391124      -11.9055168
1.8300108       0.0338283       -12.2267088
1.962156        2.6147286       -12.3645537
6.2348508       -2.5828902      -11.8252188
6.126732        -0.0139293      -12.1544406
6.1047078       2.5689609       -12.298977
10.0850814      -0.9989298      -9.475164
10.091088       3.0405672       -9.4724874
-2.5508028      1.0626066       -16.8063714
-3.8362152      1.1680713       -19.0185813
-5.9925846      1.1780208       -20.4612687
-8.0708682      1.2158289       -18.9289152
-7.7104722      1.0765359       -16.3767771
-5.135643       1.1004147       -16.782282
-2.5187676      -3.1062339      -16.9000524
-3.834213       -3.0883248      -19.1002176
-6.046644       -3.0923046      -20.4599304
-8.188998       -3.2116986      -19.0346409
-7.6704282      -3.1400622      -16.4691198
-5.1096144      -3.1719006      -16.8331374
-3.9102966      -1.014849       -17.5772322
-8.4733104      -1.0327581      -17.7070473
-1.6798458      2.5391124       -14.8604832
-1.8300108      -0.0338283      -14.5392912
-1.962156       -2.6147286      -14.4014463
-6.2348508      2.5828902       -14.9407812
-6.126732       0.0139293       -14.6115594
-6.1047078      -2.5689609      -14.467023
-10.0850814     0.9989298       -17.290836
-10.091088      -3.0405672      -17.2935126
7.4601972       8.8868934       -16.6511286
6.1747848       8.7814287       -14.4389187
4.0184154       8.7714792       -12.9962313
1.9401318       8.7336711       -14.5285848
2.3005278       8.8729641       -17.0807229
4.875357        8.8490853       -16.675218
7.4922324       13.0557339      -16.5574476
6.176787        13.0378248      -14.3572824
3.964356        13.0418046      -12.9975696
1.822002        13.1611986      -14.4228591
2.3405718       13.0895622      -16.9883802
4.9013856       13.1214006      -16.6243626
6.1007034       10.964349       -15.8802678
1.5376896       10.9822581      -15.7504527
8.3311542       7.4103876       -18.5970168
8.1809892       9.9833283       -18.9182088
8.048844        12.5642286      -19.0560537
3.7761492       7.3666098       -18.5167188
3.884268        9.9355707       -18.8459406
3.9062922       12.5184609      -18.990477
-0.0740814      8.9505702       -16.166664
-0.080088       12.9900672      -16.1639874
-7.4601972      11.0121066      -10.1148714
-6.1747848      11.1175713      -12.3270813
-4.0184154      11.1275208      -13.7697687
-1.9401318      11.1653289      -12.2374152
-2.3005278      11.0260359      -9.6852771
-4.875357       11.0499147      -10.090782
-7.4922324      6.8432661       -10.2085524
-6.176787       6.8611752       -12.4087176
-3.964356       6.8571954       -13.7684304
-1.822002       6.7378014       -12.3431409
-2.3405718      6.8094378       -9.7776198
-4.9013856      6.7775994       -10.1416374
-6.1007034      8.934651        -10.8857322
-1.5376896      8.9167419       -11.0155473
-8.3311542      12.4886124      -8.1689832
-8.1809892      9.9156717       -7.8477912
-8.048844       7.3347714       -7.7099463
-3.7761492      12.5323902      -8.2492812
-3.884268       9.9634293       -7.9200594
-3.9062922      7.3805391       -7.775523
0.0740814       10.9484298      -10.599336
0.080088        6.9089328       -10.6020126
27.4821972      -18.8363934     -3.2681286
26.1967848      -18.7309287     -1.0559187
24.0404154      -18.7209792     0.3867687
21.9621318      -18.6831711     -1.1455848
22.3225278      -18.8224641     -3.6977229
24.897357       -18.7985853     -3.292218
27.5142324      -23.0052339     -3.1744476
26.198787       -22.9873248     -0.9742824
23.986356       -22.9913046     0.3854304
21.844002       -23.1106986     -1.0398591
22.3625718      -23.0390622     -3.6053802
24.9233856      -23.0709006     -3.2413626
26.1227034      -20.913849      -2.4972678
21.5596896      -20.9317581     -2.3674527
28.3531542      -17.3598876     -5.2140168
28.2029892      -19.9328283     -5.5352088
28.070844       -22.5137286     -5.6730537
23.7981492      -17.3161098     -5.1337188
23.906268       -19.8850707     -5.4629406
23.9282922      -22.4679609     -5.607477
19.9479186      -18.9000702     -2.783664
19.941912       -22.9395672     -2.7809874
28.4152224      -24.87375       -4.737582
23.7941448      -24.87375       -4.7349054
25.7943426      -24.87375       0.7748757
22.194387       -24.87375       0.8177013
12.5618028      -20.9616066     3.2681286
13.8472152      -21.0670713     1.0559187
16.0035846      -21.0770208     -0.3867687
18.0818682      -21.1148289     1.1455848
17.7214722      -20.9755359     3.6977229
15.146643       -20.9994147     3.292218
12.5297676      -16.7927661     3.1744476
13.845213       -16.8106752     0.9742824
16.057644       -16.8066954     -0.3854304
18.199998       -16.6873014     1.0398591
17.6814282      -16.7589378     3.6053802
15.1206144      -16.7270994     3.2413626
13.9212966      -18.884151      2.4972678
18.4843104      -18.8662419     2.3674527
11.6908458      -22.4381124     5.2140168
11.8410108      -19.8651717     5.5352088
11.973156       -17.2842714     5.6730537
16.2458508      -22.4818902     5.1337188
16.137732       -19.9129293     5.4629406
16.1157078      -17.3300391     5.607477
20.0960814      -20.8979298     2.783664
20.102088       -16.8584328     2.7809874
11.6287776      -14.92425       4.737582
16.2498552      -14.92425       4.7349054
14.2496574      -14.92425       -0.7748757
17.849613       -14.92425       -0.8177013
22.5728028      -8.8868934      3.4233714
23.8582152      -8.7814287      5.6355813
26.0145846      -8.7714792      7.0782687
28.0928682      -8.7336711      5.5459152
27.7324722      -8.8729641      2.9937771
25.157643       -8.8490853      3.399282
22.5407676      -13.0557339     3.5170524
23.856213       -13.0378248     5.7172176
26.068644       -13.0418046     7.0769304
28.210998       -13.1611986     5.6516409
27.6924282      -13.0895622     3.0861198
25.1316144      -13.1214006     3.4501374
23.9322966      -10.964349      4.1942322
28.4953104      -10.9822581     4.3240473
21.7018458      -7.4103876      1.4774832
21.8520108      -9.9833283      1.1562912
21.984156       -12.5642286     1.0184463
26.2568508      -7.3666098      1.5577812
26.148732       -9.9355707      1.2285594
26.1267078      -12.5184609     1.084023
30.1070814      -8.9505702      3.907836
30.113088       -12.9900672     3.9105126
21.6397776      -14.92425       1.953918
26.2608552      -14.92425       1.9565946
24.2606574      -14.92425       7.4663757
27.860613       -14.92425       7.5092013
17.4711972      -11.0121066     -3.4233714
16.1857848      -11.1175713     -5.6355813
14.0294154      -11.1275208     -7.0782687
11.9511318      -11.1653289     -5.5459152
12.3115278      -11.0260359     -2.9937771
14.886357       -11.0499147     -3.399282
17.5032324      -6.8432661      -3.5170524
16.187787       -6.8611752      -5.7172176
13.975356       -6.8571954      -7.0769304
11.833002       -6.7378014      -5.6516409
12.3515718      -6.8094378      -3.0861198
14.9123856      -6.7775994      -3.4501374
16.1117034      -8.934651       -4.1942322
11.5486896      -8.9167419      -4.3240473
18.3421542      -12.4886124     -1.4774832
18.1919892      -9.9156717      -1.1562912
18.059844       -7.3347714      -1.0184463
13.7871492      -12.5323902     -1.5577812
13.895268       -9.9634293      -1.2285594
13.9172922      -7.3805391      -1.084023
9.9369186       -10.9484298     -3.907836
9.930912        -6.9089328      -3.9105126
18.4042224      -4.97475        -1.953918
13.7831448      -4.97475        -1.9565946
15.7833426      -4.97475        -7.4663757
12.183387       -4.97475        -7.5092013
22.5728028      -20.9616066     3.4233714
23.8582152      -21.0670713     5.6355813
26.0145846      -21.0770208     7.0782687
28.0928682      -21.1148289     5.5459152
27.7324722      -20.9755359     2.9937771
25.157643       -20.9994147     3.399282
22.5407676      -16.7927661     3.5170524
23.856213       -16.8106752     5.7172176
26.068644       -16.8066954     7.0769304
28.210998       -16.6873014     5.6516409
27.6924282      -16.7589378     3.0861198
25.1316144      -16.7270994     3.4501374
23.9322966      -18.884151      4.1942322
28.4953104      -18.8662419     4.3240473
21.7018458      -22.4381124     1.4774832
21.8520108      -19.8651717     1.1562912
21.984156       -17.2842714     1.0184463
26.2568508      -22.4818902     1.5577812
26.148732       -19.9129293     1.2285594
26.1267078      -17.3300391     1.084023
30.1070814      -20.8979298     3.907836
30.113088       -16.8584328     3.9105126
17.4711972      -18.8363934     -3.4233714
16.1857848      -18.7309287     -5.6355813
14.0294154      -18.7209792     -7.0782687
11.9511318      -18.6831711     -5.5459152
12.3115278      -18.8224641     -2.9937771
14.886357       -18.7985853     -3.399282
17.5032324      -23.0052339     -3.5170524
16.187787       -22.9873248     -5.7172176
13.975356       -22.9913046     -7.0769304
11.833002       -23.1106986     -5.6516409
12.3515718      -23.0390622     -3.0861198
14.9123856      -23.0709006     -3.4501374
16.1117034      -20.913849      -4.1942322
11.5486896      -20.9317581     -4.3240473
18.3421542      -17.3598876     -1.4774832
18.1919892      -19.9328283     -1.1562912
18.059844       -22.5137286     -1.0184463
13.7871492      -17.3161098     -1.5577812
13.895268       -19.8850707     -1.2285594
13.9172922      -22.4679609     -1.084023
9.9369186       -18.9000702     -3.907836
9.930912        -22.9395672     -3.9105126
27.4821972      -11.0121066     -3.2681286
26.1967848      -11.1175713     -1.0559187
24.0404154      -11.1275208     0.3867687
21.9621318      -11.1653289     -1.1455848
22.3225278      -11.0260359     -3.6977229
24.897357       -11.0499147     -3.292218
27.5142324      -6.8432661      -3.1744476
26.198787       -6.8611752      -0.9742824
23.986356       -6.8571954      0.3854304
21.844002       -6.7378014      -1.0398591
22.3625718      -6.8094378      -3.6053802
24.9233856      -6.7775994      -3.2413626
26.1227034      -8.934651       -2.4972678
21.5596896      -8.9167419      -2.3674527
28.3531542      -12.4886124     -5.2140168
28.2029892      -9.9156717      -5.5352088
28.070844       -7.3347714      -5.6730537
23.7981492      -12.5323902     -5.1337188
23.906268       -9.9634293      -5.4629406
23.9282922      -7.3805391      -5.607477
19.9479186      -10.9484298     -2.783664
19.941912       -6.9089328      -2.7809874
12.5618028      -8.8868934      3.2681286
13.8472152      -8.7814287      1.0559187
16.0035846      -8.7714792      -0.3867687
18.0818682      -8.7336711      1.1455848
17.7214722      -8.8729641      3.6977229
15.146643       -8.8490853      3.292218
12.5297676      -13.0557339     3.1744476
13.845213       -13.0378248     0.9742824
16.057644       -13.0418046     -0.3854304
18.199998       -13.1611986     1.0398591
17.6814282      -13.0895622     3.6053802
15.1206144      -13.1214006     3.2413626
13.9212966      -10.964349      2.4972678
18.4843104      -10.9822581     2.3674527
11.6908458      -7.4103876      5.2140168
11.8410108      -9.9833283      5.5352088
11.973156       -12.5642286     5.6730537
16.2458508      -7.3666098      5.1337188
16.137732       -9.9355707      5.4629406
16.1157078      -12.5184609     5.607477
20.0960814      -8.9505702      2.783664
20.102088       -12.9900672     2.7809874
27.4821972      1.0626066       -16.6511286
26.1967848      1.1680713       -14.4389187
24.0404154      1.1780208       -12.9962313
21.9621318      1.2158289       -14.5285848
22.3225278      1.0765359       -17.0807229
24.897357       1.1004147       -16.675218
27.5142324      -3.1062339      -16.5574476
26.198787       -3.0883248      -14.3572824
23.986356       -3.0923046      -12.9975696
21.844002       -3.2116986      -14.4228591
22.3625718      -3.1400622      -16.9883802
24.9233856      -3.1719006      -16.6243626
26.1227034      -1.014849       -15.8802678
21.5596896      -1.0327581      -15.7504527
28.3531542      2.5391124       -18.5970168
28.2029892      -0.0338283      -18.9182088
28.070844       -2.6147286      -19.0560537
23.7981492      2.5828902       -18.5167188
23.906268       0.0139293       -18.8459406
23.9282922      -2.5689609      -18.990477
19.9479186      0.9989298       -16.166664
19.941912       -3.0405672      -16.1639874
28.4152224      -4.97475        -18.120582
23.7941448      -4.97475        -18.1179054
25.7943426      -4.97475        -12.6081243
22.194387       -4.97475        -12.5652987
12.5618028      -1.0626066      -10.1148714
13.8472152      -1.1680713      -12.3270813
16.0035846      -1.1780208      -13.7697687
18.0818682      -1.2158289      -12.2374152
17.7214722      -1.0765359      -9.6852771
15.146643       -1.1004147      -10.090782
12.5297676      3.1062339       -10.2085524
13.845213       3.0883248       -12.4087176
16.057644       3.0923046       -13.7684304
18.199998       3.2116986       -12.3431409
17.6814282      3.1400622       -9.7776198
15.1206144      3.1719006       -10.1416374
13.9212966      1.014849        -10.8857322
18.4843104      1.0327581       -11.0155473
11.6908458      -2.5391124      -8.1689832
11.8410108      0.0338283       -7.8477912
11.973156       2.6147286       -7.7099463
16.2458508      -2.5828902      -8.2492812
16.137732       -0.0139293      -7.9200594
16.1157078      2.5689609       -7.775523
20.0960814      -0.9989298      -10.599336
20.102088       3.0405672       -10.6020126
11.6287776      4.97475 -8.645418
16.2498552      4.97475 -8.6480946
14.2496574      4.97475 -14.1578757
17.849613       4.97475 -14.2007013
22.5728028      11.0121066      -9.9596286
23.8582152      11.1175713      -7.7474187
26.0145846      11.1275208      -6.3047313
28.0928682      11.1653289      -7.8370848
27.7324722      11.0260359      -10.3892229
25.157643       11.0499147      -9.983718
22.5407676      6.8432661       -9.8659476
23.856213       6.8611752       -7.6657824
26.068644       6.8571954       -6.3060696
28.210998       6.7378014       -7.7313591
27.6924282      6.8094378       -10.2968802
25.1316144      6.7775994       -9.9328626
23.9322966      8.934651        -9.1887678
28.4953104      8.9167419       -9.0589527
21.7018458      12.4886124      -11.9055168
21.8520108      9.9156717       -12.2267088
21.984156       7.3347714       -12.3645537
26.2568508      12.5323902      -11.8252188
26.148732       9.9634293       -12.1544406
26.1267078      7.3805391       -12.298977
30.1070814      10.9484298      -9.475164
30.113088       6.9089328       -9.4724874
21.6397776      4.97475 -11.429082
26.2608552      4.97475 -11.4264054
24.2606574      4.97475 -5.9166243
27.860613       4.97475 -5.8737987
17.4711972      8.8868934       -16.8063714
16.1857848      8.7814287       -19.0185813
14.0294154      8.7714792       -20.4612687
11.9511318      8.7336711       -18.9289152
12.3115278      8.8729641       -16.3767771
14.886357       8.8490853       -16.782282
17.5032324      13.0557339      -16.9000524
16.187787       13.0378248      -19.1002176
13.975356       13.0418046      -20.4599304
11.833002       13.1611986      -19.0346409
12.3515718      13.0895622      -16.4691198
14.9123856      13.1214006      -16.8331374
16.1117034      10.964349       -17.5772322
11.5486896      10.9822581      -17.7070473
18.3421542      7.4103876       -14.8604832
18.1919892      9.9833283       -14.5392912
18.059844       12.5642286      -14.4014463
13.7871492      7.3666098       -14.9407812
13.895268       9.9355707       -14.6115594
13.9172922      12.5184609      -14.467023
9.9369186       8.9505702       -17.290836
9.930912        12.9900672      -17.2935126
18.4042224      14.92425        -15.336918
13.7831448      14.92425        -15.3395946
15.7833426      14.92425        -20.8493757
12.183387       14.92425        -20.8922013
22.5728028      -1.0626066      -9.9596286
23.8582152      -1.1680713      -7.7474187
26.0145846      -1.1780208      -6.3047313
28.0928682      -1.2158289      -7.8370848
27.7324722      -1.0765359      -10.3892229
25.157643       -1.1004147      -9.983718
22.5407676      3.1062339       -9.8659476
23.856213       3.0883248       -7.6657824
26.068644       3.0923046       -6.3060696
28.210998       3.2116986       -7.7313591
27.6924282      3.1400622       -10.2968802
25.1316144      3.1719006       -9.9328626
23.9322966      1.014849        -9.1887678
28.4953104      1.0327581       -9.0589527
21.7018458      -2.5391124      -11.9055168
21.8520108      0.0338283       -12.2267088
21.984156       2.6147286       -12.3645537
26.2568508      -2.5828902      -11.8252188
26.148732       -0.0139293      -12.1544406
26.1267078      2.5689609       -12.298977
30.1070814      -0.9989298      -9.475164
30.113088       3.0405672       -9.4724874
17.4711972      1.0626066       -16.8063714
16.1857848      1.1680713       -19.0185813
14.0294154      1.1780208       -20.4612687
11.9511318      1.2158289       -18.9289152
12.3115278      1.0765359       -16.3767771
14.886357       1.1004147       -16.782282
17.5032324      -3.1062339      -16.9000524
16.187787       -3.0883248      -19.1002176
13.975356       -3.0923046      -20.4599304
11.833002       -3.2116986      -19.0346409
12.3515718      -3.1400622      -16.4691198
14.9123856      -3.1719006      -16.8331374
16.1117034      -1.014849       -17.5772322
11.5486896      -1.0327581      -17.7070473
18.3421542      2.5391124       -14.8604832
18.1919892      -0.0338283      -14.5392912
18.059844       -2.6147286      -14.4014463
13.7871492      2.5828902       -14.9407812
13.895268       0.0139293       -14.6115594
13.9172922      -2.5689609      -14.467023
9.9369186       0.9989298       -17.290836
9.930912        -3.0405672      -17.2935126
27.4821972      8.8868934       -16.6511286
26.1967848      8.7814287       -14.4389187
24.0404154      8.7714792       -12.9962313
21.9621318      8.7336711       -14.5285848
22.3225278      8.8729641       -17.0807229
24.897357       8.8490853       -16.675218
27.5142324      13.0557339      -16.5574476
26.198787       13.0378248      -14.3572824
23.986356       13.0418046      -12.9975696
21.844002       13.1611986      -14.4228591
22.3625718      13.0895622      -16.9883802
24.9233856      13.1214006      -16.6243626
26.1227034      10.964349       -15.8802678
21.5596896      10.9822581      -15.7504527
28.3531542      7.4103876       -18.5970168
28.2029892      9.9833283       -18.9182088
28.070844       12.5642286      -19.0560537
23.7981492      7.3666098       -18.5167188
23.906268       9.9355707       -18.8459406
23.9282922      12.5184609      -18.990477
19.9479186      8.9505702       -16.166664
19.941912       12.9900672      -16.1639874
12.5618028      11.0121066      -10.1148714
13.8472152      11.1175713      -12.3270813
16.0035846      11.1275208      -13.7697687
18.0818682      11.1653289      -12.2374152
17.7214722      11.0260359      -9.6852771
15.146643       11.0499147      -10.090782
12.5297676      6.8432661       -10.2085524
13.845213       6.8611752       -12.4087176
16.057644       6.8571954       -13.7684304
18.199998       6.7378014       -12.3431409
17.6814282      6.8094378       -9.7776198
15.1206144      6.7775994       -10.1416374
13.9212966      8.934651        -10.8857322
18.4843104      8.9167419       -11.0155473
11.6908458      12.4886124      -8.1689832
11.8410108      9.9156717       -7.8477912
11.973156       7.3347714       -7.7099463
16.2458508      12.5323902      -8.2492812
16.137732       9.9634293       -7.9200594
16.1157078      7.3805391       -7.775523
20.0960814      10.9484298      -10.599336
20.102088       6.9089328       -10.6020126
7.4601972       -18.8363934     -16.6511286
6.1747848       -18.7309287     -14.4389187
4.0184154       -18.7209792     -12.9962313
1.9401318       -18.6831711     -14.5285848
2.3005278       -18.8224641     -17.0807229
4.875357        -18.7985853     -16.675218
7.4922324       -23.0052339     -16.5574476
6.176787        -22.9873248     -14.3572824
3.964356        -22.9913046     -12.9975696
1.822002        -23.1106986     -14.4228591
2.3405718       -23.0390622     -16.9883802
4.9013856       -23.0709006     -16.6243626
6.1007034       -20.913849      -15.8802678
1.5376896       -20.9317581     -15.7504527
8.3311542       -17.3598876     -18.5970168
8.1809892       -19.9328283     -18.9182088
8.048844        -22.5137286     -19.0560537
3.7761492       -17.3161098     -18.5167188
3.884268        -19.8850707     -18.8459406
3.9062922       -22.4679609     -18.990477
-0.0740814      -18.9000702     -16.166664
-0.080088       -22.9395672     -16.1639874
8.3932224       -24.87375       -18.120582
3.7721448       -24.87375       -18.1179054
5.7723426       -24.87375       -12.6081243
2.172387        -24.87375       -12.5652987
-7.4601972      -20.9616066     -10.1148714
-6.1747848      -21.0670713     -12.3270813
-4.0184154      -21.0770208     -13.7697687
-1.9401318      -21.1148289     -12.2374152
-2.3005278      -20.9755359     -9.6852771
-4.875357       -20.9994147     -10.090782
-7.4922324      -16.7927661     -10.2085524
-6.176787       -16.8106752     -12.4087176
-3.964356       -16.8066954     -13.7684304
-1.822002       -16.6873014     -12.3431409
-2.3405718      -16.7589378     -9.7776198
-4.9013856      -16.7270994     -10.1416374
-6.1007034      -18.884151      -10.8857322
-1.5376896      -18.8662419     -11.0155473
-8.3311542      -22.4381124     -8.1689832
-8.1809892      -19.8651717     -7.8477912
-8.048844       -17.2842714     -7.7099463
-3.7761492      -22.4818902     -8.2492812
-3.884268       -19.9129293     -7.9200594
-3.9062922      -17.3300391     -7.775523
0.0740814       -20.8979298     -10.599336
0.080088        -16.8584328     -10.6020126
-8.3932224      -14.92425       -8.645418
-3.7721448      -14.92425       -8.6480946
-5.7723426      -14.92425       -14.1578757
-2.172387       -14.92425       -14.2007013
2.5508028       -8.8868934      -9.9596286
3.8362152       -8.7814287      -7.7474187
5.9925846       -8.7714792      -6.3047313
8.0708682       -8.7336711      -7.8370848
7.7104722       -8.8729641      -10.3892229
5.135643        -8.8490853      -9.983718
2.5187676       -13.0557339     -9.8659476
3.834213        -13.0378248     -7.6657824
6.046644        -13.0418046     -6.3060696
8.188998        -13.1611986     -7.7313591
7.6704282       -13.0895622     -10.2968802
5.1096144       -13.1214006     -9.9328626
3.9102966       -10.964349      -9.1887678
8.4733104       -10.9822581     -9.0589527
1.6798458       -7.4103876      -11.9055168
1.8300108       -9.9833283      -12.2267088
1.962156        -12.5642286     -12.3645537
6.2348508       -7.3666098      -11.8252188
6.126732        -9.9355707      -12.1544406
6.1047078       -12.5184609     -12.298977
10.0850814      -8.9505702      -9.475164
10.091088       -12.9900672     -9.4724874
1.6177776       -14.92425       -11.429082
6.2388552       -14.92425       -11.4264054
4.2386574       -14.92425       -5.9166243
7.838613        -14.92425       -5.8737987
-2.5508028      -11.0121066     -16.8063714
-3.8362152      -11.1175713     -19.0185813
-5.9925846      -11.1275208     -20.4612687
-8.0708682      -11.1653289     -18.9289152
-7.7104722      -11.0260359     -16.3767771
-5.135643       -11.0499147     -16.782282
-2.5187676      -6.8432661      -16.9000524
-3.834213       -6.8611752      -19.1002176
-6.046644       -6.8571954      -20.4599304
-8.188998       -6.7378014      -19.0346409
-7.6704282      -6.8094378      -16.4691198
-5.1096144      -6.7775994      -16.8331374
-3.9102966      -8.934651       -17.5772322
-8.4733104      -8.9167419      -17.7070473
-1.6798458      -12.4886124     -14.8604832
-1.8300108      -9.9156717      -14.5392912
-1.962156       -7.3347714      -14.4014463
-6.2348508      -12.5323902     -14.9407812
-6.126732       -9.9634293      -14.6115594
-6.1047078      -7.3805391      -14.467023
-10.0850814     -10.9484298     -17.290836
-10.091088      -6.9089328      -17.2935126
-1.6177776      -4.97475        -15.336918
-6.2388552      -4.97475        -15.3395946
-4.2386574      -4.97475        -20.8493757
-7.838613       -4.97475        -20.8922013
2.5508028       -20.9616066     -9.9596286
3.8362152       -21.0670713     -7.7474187
5.9925846       -21.0770208     -6.3047313
8.0708682       -21.1148289     -7.8370848
7.7104722       -20.9755359     -10.3892229
5.135643        -20.9994147     -9.983718
2.5187676       -16.7927661     -9.8659476
3.834213        -16.8106752     -7.6657824
6.046644        -16.8066954     -6.3060696
8.188998        -16.6873014     -7.7313591
7.6704282       -16.7589378     -10.2968802
5.1096144       -16.7270994     -9.9328626
3.9102966       -18.884151      -9.1887678
8.4733104       -18.8662419     -9.0589527
1.6798458       -22.4381124     -11.9055168
1.8300108       -19.8651717     -12.2267088
1.962156        -17.2842714     -12.3645537
6.2348508       -22.4818902     -11.8252188
6.126732        -19.9129293     -12.1544406
6.1047078       -17.3300391     -12.298977
10.0850814      -20.8979298     -9.475164
10.091088       -16.8584328     -9.4724874
-2.5508028      -18.8363934     -16.8063714
-3.8362152      -18.7309287     -19.0185813
-5.9925846      -18.7209792     -20.4612687
-8.0708682      -18.6831711     -18.9289152
-7.7104722      -18.8224641     -16.3767771
-5.135643       -18.7985853     -16.782282
-2.5187676      -23.0052339     -16.9000524
-3.834213       -22.9873248     -19.1002176
-6.046644       -22.9913046     -20.4599304
-8.188998       -23.1106986     -19.0346409
-7.6704282      -23.0390622     -16.4691198
-5.1096144      -23.0709006     -16.8331374
-3.9102966      -20.913849      -17.5772322
-8.4733104      -20.9317581     -17.7070473
-1.6798458      -17.3598876     -14.8604832
-1.8300108      -19.9328283     -14.5392912
-1.962156       -22.5137286     -14.4014463
-6.2348508      -17.3161098     -14.9407812
-6.126732       -19.8850707     -14.6115594
-6.1047078      -22.4679609     -14.467023
-10.0850814     -18.9000702     -17.290836
-10.091088      -22.9395672     -17.2935126
7.4601972       -11.0121066     -16.6511286
6.1747848       -11.1175713     -14.4389187
4.0184154       -11.1275208     -12.9962313
1.9401318       -11.1653289     -14.5285848
2.3005278       -11.0260359     -17.0807229
4.875357        -11.0499147     -16.675218
7.4922324       -6.8432661      -16.5574476
6.176787        -6.8611752      -14.3572824
3.964356        -6.8571954      -12.9975696
1.822002        -6.7378014      -14.4228591
2.3405718       -6.8094378      -16.9883802
4.9013856       -6.7775994      -16.6243626
6.1007034       -8.934651       -15.8802678
1.5376896       -8.9167419      -15.7504527
8.3311542       -12.4886124     -18.5970168
8.1809892       -9.9156717      -18.9182088
8.048844        -7.3347714      -19.0560537
3.7761492       -12.5323902     -18.5167188
3.884268        -9.9634293      -18.8459406
3.9062922       -7.3805391      -18.990477
-0.0740814      -10.9484298     -16.166664
-0.080088       -6.9089328      -16.1639874
-7.4601972      -8.8868934      -10.1148714
-6.1747848      -8.7814287      -12.3270813
-4.0184154      -8.7714792      -13.7697687
-1.9401318      -8.7336711      -12.2374152
-2.3005278      -8.8729641      -9.6852771
-4.875357       -8.8490853      -10.090782
-7.4922324      -13.0557339     -10.2085524
-6.176787       -13.0378248     -12.4087176
-3.964356       -13.0418046     -13.7684304
-1.822002       -13.1611986     -12.3431409
-2.3405718      -13.0895622     -9.7776198
-4.9013856      -13.1214006     -10.1416374
-6.1007034      -10.964349      -10.8857322
-1.5376896      -10.9822581     -11.0155473
-8.3311542      -7.4103876      -8.1689832
-8.1809892      -9.9833283      -7.8477912
-8.048844       -12.5642286     -7.7099463
-3.7761492      -7.3666098      -8.2492812
-3.884268       -9.9355707      -7.9200594
-3.9062922      -12.5184609     -7.775523
0.0740814       -8.9505702      -10.599336
0.080088        -12.9900672     -10.6020126
27.4821972      -18.8363934     -16.6511286
26.1967848      -18.7309287     -14.4389187
24.0404154      -18.7209792     -12.9962313
21.9621318      -18.6831711     -14.5285848
22.3225278      -18.8224641     -17.0807229
